# .PCD v0.7
VERSION 0.7
FIELDS x y z
SIZE 4 4 4
TYPE F F F
COUNT 1 1 1
WIDTH 1772
HEIGHT 1
VIEWPOINT 0 0 0 1 0 0 0
POINTS 1772
DATA ascii
0.182650 0.000000 0.101577
0.143343 0.000000 0.490532
0.094194 0.000000 0.107972
0.184629 0.000000 0.241290
0.492126 0.000000 0.278556
0.360653 0.000000 0.166384
0.084485 0.000000 0.027241
0.381323 0.000000 0.283322
0.075893 0.000000 0.251362
0.355793 0.000000 0.141661
0.295000 0.000000 0.395421
0.059331 0.000000 0.042060
0.043245 0.000000 0.220565
0.260183 0.000000 0.451767
0.322757 0.000000 0.231427
0.030010 0.000000 0.276373
0.290428 0.000000 0.260943
0.213845 0.000000 0.228098
0.462693 0.000000 0.471014
0.214706 0.000000 0.265159
0.003453 0.000000 0.330373
0.408065 0.000000 0.211495
0.150440 0.000000 0.272750
0.260877 0.000000 0.153326
0.139249 0.000000 0.254781
0.144751 0.000000 0.042573
0.438206 0.000000 0.178527
0.473738 0.000000 0.450301
0.441965 0.000000 0.369054
0.248270 0.000000 0.365732
0.021247 0.000000 0.278241
0.153650 0.000000 0.055005
0.032627 0.000000 0.193297
0.067629 0.000000 0.231163
0.199741 0.000000 0.149006
0.314020 0.000000 0.024442
0.133012 0.000000 0.217891
0.161643 0.000000 0.095380
0.002456 0.000000 0.361741
0.415969 0.000000 0.171824
0.173138 0.000000 0.398609
0.066429 0.000000 0.145041
0.312486 0.000000 0.272320
0.275357 0.000000 0.254639
0.180797 0.000000 0.018660
0.043668 0.000000 0.279244
0.479277 0.000000 0.068147
0.335476 0.000000 0.247503
0.259108 0.000000 0.031147
0.214421 0.000000 0.382760
0.053704 0.000000 0.224690
0.168834 0.000000 0.041220
0.269970 0.000000 0.104142
0.377199 0.000000 0.264836
0.344996 0.000000 0.374027
0.242506 0.000000 0.464492
0.205225 0.000000 0.481791
0.195355 0.000000 0.015583
0.339236 0.000000 0.019789
0.190544 0.000000 0.246120
0.408827 0.000000 0.121040
0.171404 0.000000 0.403527
0.046361 0.000000 0.223408
0.189432 0.000000 0.348321
0.051357 0.000000 0.164724
0.225815 0.000000 0.171380
0.450876 0.000000 0.294384
0.278699 0.000000 0.455256
0.068999 0.000000 0.473964
0.348710 0.000000 0.187002
0.213276 0.000000 0.030028
0.389031 0.000000 0.188758
0.359469 0.000000 0.434675
0.490706 0.000000 0.310822
0.278099 0.000000 0.382309
0.496853 0.000000 0.100854
0.498328 0.000000 0.307066
0.152200 0.000000 0.070003
0.261863 0.000000 0.443451
0.287465 0.000000 0.466074
0.150190 0.000000 0.223588
0.307054 0.000000 0.089705
0.284379 0.000000 0.222623
0.192296 0.000000 0.242483
0.393687 0.000000 0.493749
0.095058 0.000000 0.398463
0.115295 0.000000 0.282732
0.217297 0.000000 0.460190
0.185633 0.000000 0.042991
0.254152 0.000000 0.343507
0.410736 0.000000 0.409486
0.479335 0.000000 0.164696
0.350248 0.000000 0.383229
0.410152 0.000000 0.421209
0.265662 0.000000 0.455159
0.472462 0.000000 0.039154
0.072476 0.000000 0.253748
0.128375 0.000000 0.207785
0.240392 0.000000 0.438204
0.268634 0.000000 0.052506
0.416248 0.000000 0.066253
0.373035 0.000000 0.343773
0.403881 0.000000 0.318520
0.093426 0.000000 0.412807
0.490900 0.000000 0.148948
0.450090 0.000000 0.356216
0.304707 0.000000 0.459585
0.341560 0.000000 0.283174
0.249391 0.000000 0.193862
0.081763 0.000000 0.425573
0.320808 0.000000 0.499425
0.137263 0.000000 0.145319
0.406810 0.000000 0.145740
0.319727 0.000000 0.190720
0.298918 0.000000 0.152634
0.422628 0.000000 0.422483
0.050131 0.000000 0.072005
0.135817 0.000000 0.442245
0.338692 0.000000 0.179593
0.284642 0.000000 0.045812
0.338091 0.000000 0.481478
0.022131 0.000000 0.410073
0.136081 0.000000 0.394353
0.181052 0.000000 0.288210
0.125696 0.000000 0.331861
0.317342 0.000000 0.289842
0.259914 0.000000 0.277180
0.340351 0.000000 0.214381
0.386790 0.000000 0.234102
0.483260 0.000000 0.225573
0.197577 0.000000 0.286720
0.237679 0.000000 0.368175
0.423574 0.000000 0.412329
0.353190 0.000000 0.196301
0.311269 0.000000 0.095630
0.357154 0.000000 0.146560
0.327495 0.000000 0.135210
0.406299 0.000000 0.082080
0.181493 0.000000 0.321335
0.454833 0.000000 0.241238
0.490444 0.000000 0.252447
0.371658 0.000000 0.239110
0.466368 0.000000 0.276404
0.125610 0.000000 0.355233
0.132729 0.000000 0.182635
0.100938 0.000000 0.477962
0.320839 0.000000 0.314794
0.224666 0.000000 0.315357
0.307681 0.000000 0.192933
0.224885 0.000000 0.394119
0.237451 0.000000 0.102221
0.075465 0.000000 0.397568
0.078957 0.000000 0.376304
0.025322 0.000000 0.203865
0.126706 0.000000 0.318656
0.031523 0.000000 0.443203
0.187374 0.000000 0.170791
0.159049 0.000000 0.228596
0.435075 0.000000 0.221481
0.490177 0.000000 0.241856
0.481116 0.000000 0.266617
0.069617 0.000000 0.305792
0.423575 0.000000 0.087262
0.095145 0.000000 0.261823
0.495378 0.000000 0.261580
0.169057 0.000000 0.130880
0.319715 0.000000 0.459037
0.426007 0.000000 0.360841
0.387068 0.000000 0.297422
0.143021 0.000000 0.242952
0.429210 0.000000 0.314290
0.426261 0.000000 0.087139
0.066738 0.000000 0.322284
0.293143 0.000000 0.436027
0.019396 0.000000 0.002676
0.214292 0.000000 0.380022
0.303392 0.000000 0.431784
0.047205 0.000000 0.258234
0.141418 0.000000 0.048291
0.167868 0.000000 0.040051
0.079486 0.000000 0.184668
0.306304 0.000000 0.115822
0.215574 0.000000 0.294489
0.011319 0.000000 0.458788
0.048644 0.000000 0.178086
0.296739 0.000000 0.157216
0.084858 0.000000 0.490960
0.298400 0.000000 0.252739
0.035875 0.000000 0.274215
0.178120 0.000000 0.075712
0.221806 0.000000 0.071866
0.176696 0.000000 0.337754
0.399137 0.000000 0.476467
0.029598 0.000000 0.273600
0.447952 0.000000 0.095359
0.276349 0.000000 0.371158
0.315686 0.000000 0.468515
0.271578 0.000000 0.049789
0.158506 0.000000 0.292505
0.144454 0.000000 0.491353
0.402923 0.000000 0.394296
0.401057 0.000000 0.272163
0.486452 0.000000 0.196083
0.031530 0.000000 0.050949
0.315059 0.000000 0.433012
0.138862 0.000000 0.386776
0.167786 0.000000 0.118564
0.051953 0.000000 0.460493
0.200069 0.000000 0.342751
0.468079 0.000000 0.343899
0.357651 0.000000 0.116059
0.154763 0.000000 0.418638
0.039461 0.000000 0.223255
0.393244 0.000000 0.413830
0.347064 0.000000 0.297778
0.034957 0.000000 0.275969
0.031639 0.000000 0.388799
0.450212 0.000000 0.371277
0.226742 0.000000 0.189133
0.317127 0.000000 0.492048
0.023892 0.000000 0.107963
0.011338 0.000000 0.038524
0.264796 0.000000 0.043730
0.188814 0.000000 0.333851
0.328769 0.000000 0.391181
0.184903 0.000000 0.122857
0.329137 0.000000 0.221270
0.227932 0.000000 0.222131
0.435770 0.000000 0.350289
0.246437 0.000000 0.370116
0.440192 0.000000 0.359505
0.313051 0.000000 0.258876
0.462524 0.000000 0.453641
0.197637 0.000000 0.155067
0.294023 0.000000 0.347616
0.317038 0.000000 0.109453
0.196134 0.000000 0.113107
0.264871 0.000000 0.436084
0.252503 0.000000 0.210940
0.173531 0.000000 0.418363
0.412290 0.000000 0.028095
0.491949 0.000000 0.036269
0.012482 0.000000 0.043818
0.298322 0.000000 0.493944
0.063674 0.000000 0.037509
0.407356 0.000000 0.024230
0.309692 0.000000 0.288238
0.398008 0.000000 0.394970
0.374205 0.000000 0.251630
0.308959 0.000000 0.109390
0.280827 0.000000 0.404227
0.363211 0.000000 0.290379
0.073205 0.000000 0.239958
0.083104 0.000000 0.039408
0.035312 0.000000 0.001493
0.358688 0.000000 0.383508
0.450357 0.000000 0.391463
0.411707 0.000000 0.104673
0.176624 0.000000 0.143035
0.353353 0.000000 0.219164
0.294504 0.000000 0.081283
0.373064 0.000000 0.115920
0.208244 0.000000 0.410610
0.496538 0.000000 0.265430
0.218675 0.000000 0.209034
0.157148 0.000000 0.387419
0.380938 0.000000 0.367218
0.392910 0.000000 0.195958
0.479798 0.000000 0.411926
0.413754 0.000000 0.133190
0.036984 0.000000 0.310923
0.304047 0.000000 0.452565
0.194313 0.000000 0.340930
0.238075 0.000000 0.300961
0.208386 0.000000 0.478436
0.026328 0.000000 0.354155
0.229320 0.000000 0.490324
0.057318 0.000000 0.207284
0.076633 0.000000 0.401562
0.433969 0.000000 0.097545
0.440568 0.000000 0.210417
0.307977 0.000000 0.026027
0.233761 0.000000 0.010828
0.040986 0.000000 0.491332
0.140376 0.000000 0.151813
0.140860 0.000000 0.190503
0.158450 0.000000 0.221067
0.474233 0.000000 0.388513
0.405195 0.000000 0.025850
0.384680 0.000000 0.214033
0.319926 0.000000 0.167678
0.478315 0.000000 0.193490
0.366286 0.000000 0.004442
0.193260 0.000000 0.078250
0.113542 0.000000 0.242687
0.214082 0.000000 0.174077
0.043011 0.000000 0.376063
0.176485 0.000000 0.071376
0.319144 0.000000 0.273518
0.122691 0.000000 0.298980
0.000237 0.000000 0.403011
0.458623 0.000000 0.475859
0.426187 0.000000 0.028412
0.432721 0.000000 0.320264
0.178524 0.000000 0.142418
0.444956 0.000000 0.118698
0.043220 0.000000 0.183779
0.431450 0.000000 0.058837
0.096883 0.000000 0.010308
0.419907 0.000000 0.144771
0.292367 0.000000 0.022927
0.221683 0.000000 0.062576
0.160608 0.000000 0.077450
0.458796 0.000000 0.497050
0.184504 0.000000 0.007685
0.496202 0.000000 0.072501
0.197773 0.000000 0.055281
0.076501 0.000000 0.153377
0.337105 0.000000 0.371429
0.411246 0.000000 0.290036
0.056059 0.000000 0.283844
0.131532 0.000000 0.330988
0.356218 0.000000 0.448188
0.272718 0.000000 0.243022
0.095744 0.000000 0.325557
0.395252 0.000000 0.276276
0.432711 0.000000 0.220322
0.176216 0.000000 0.439378
0.169729 0.000000 0.411751
0.120264 0.000000 0.397633
0.487532 0.000000 0.135869
0.186025 0.000000 0.398955
0.139450 0.000000 0.248054
0.008603 0.000000 0.346483
0.183329 0.000000 0.036870
0.369221 0.000000 0.049435
0.159950 0.000000 0.484990
0.491073 0.000000 0.365762
0.253906 0.000000 0.012299
0.218729 0.000000 0.362299
0.327061 0.000000 0.341704
0.116651 0.000000 0.426438
0.112133 0.000000 0.240567
0.149049 0.000000 0.335396
0.252325 0.000000 0.389116
0.266451 0.000000 0.408773
0.019336 0.000000 0.093195
0.470395 0.000000 0.269417
0.243100 0.000000 0.401458
0.494777 0.000000 0.463557
0.300985 0.000000 0.045800
0.021274 0.000000 0.110522
0.382975 0.000000 0.121395
0.166719 0.000000 0.427783
0.458530 0.000000 0.049093
0.182416 0.000000 0.491899
0.425226 0.000000 0.227861
0.289966 0.000000 0.039385
0.032053 0.000000 0.161877
0.315721 0.000000 0.457550
0.348614 0.000000 0.337141
0.304357 0.000000 0.367660
0.316262 0.000000 0.035119
0.320007 0.000000 0.050884
0.189158 0.000000 0.402055
0.104597 0.000000 0.179375
0.425540 0.000000 0.260754
0.367462 0.000000 0.223938
0.219188 0.000000 0.331587
0.007971 0.000000 0.479808
0.318521 0.000000 0.292456
0.372207 0.000000 0.215681
0.171072 0.000000 0.353835
0.028911 0.000000 0.158987
0.272260 0.000000 0.190304
0.312281 0.000000 0.235786
0.020873 0.000000 0.399663
0.229738 0.000000 0.366713
0.151719 0.000000 0.438176
0.393946 0.000000 0.467159
0.168282 0.000000 0.261813
0.018844 0.000000 0.094175
0.096549 0.000000 0.476960
0.210665 0.000000 0.293211
0.242656 0.000000 0.260760
0.193557 0.000000 0.130595
0.124055 0.000000 0.149860
0.117715 0.000000 0.064678
0.042386 0.000000 0.366347
0.070814 0.000000 0.005395
0.477350 0.000000 0.116827
0.335166 0.000000 0.475716
0.016448 0.000000 0.241167
0.312559 0.000000 0.310373
0.254571 0.000000 0.320810
0.139290 0.000000 0.173482
0.003357 0.000000 0.464241
0.035608 0.000000 0.270010
0.132419 0.000000 0.292152
0.206618 0.000000 0.339082
0.146473 0.000000 0.237284
0.143154 0.000000 0.171425
0.026825 0.000000 0.383347
0.290333 0.000000 0.395596
0.305224 0.000000 0.347229
0.010913 0.000000 0.474083
0.243658 0.000000 0.152326
0.136289 0.000000 0.045184
0.179554 0.000000 0.111522
0.267265 0.000000 0.190311
0.288478 0.000000 0.281829
0.166037 0.000000 0.443936
0.395750 0.000000 0.024501
0.227471 0.000000 0.453223
0.143565 0.000000 0.386632
0.401295 0.000000 0.088252
0.099039 0.000000 0.074955
0.367869 0.000000 0.427607
0.100459 0.000000 0.413824
0.311805 0.000000 0.040940
0.244495 0.000000 0.214551
0.450702 0.000000 0.357245
0.078895 0.000000 0.416905
0.103310 0.000000 0.432963
0.400846 0.000000 0.133711
0.315093 0.000000 0.189188
0.299494 0.000000 0.097307
0.229742 0.000000 0.363257
0.298440 0.000000 0.480351
0.072569 0.000000 0.173103
0.276955 0.000000 0.278288
0.223816 0.000000 0.164497
0.338273 0.000000 0.019761
0.211182 0.000000 0.379170
0.073650 0.000000 0.307380
0.146148 0.000000 0.385591
0.107927 0.000000 0.296728
0.078018 0.000000 0.355786
0.154235 0.000000 0.487178
0.048351 0.000000 0.329657
0.222055 0.000000 0.142188
0.480777 0.000000 0.190159
0.178804 0.000000 0.233154
0.350710 0.000000 0.085412
0.323438 0.000000 0.031401
0.425949 0.000000 0.439798
0.462376 0.000000 0.425168
0.484181 0.000000 0.327854
0.302710 0.000000 0.090439
0.295486 0.000000 0.370097
0.469193 0.000000 0.394213
0.136528 0.000000 0.485768
0.360770 0.000000 0.082073
0.358625 0.000000 0.279723
0.254245 0.000000 0.210112
0.000626 0.000000 0.338659
0.488380 0.000000 0.094147
0.409419 0.000000 0.348195
0.482189 0.000000 0.123010
0.056463 0.000000 0.160135
0.448230 0.000000 0.291036
0.336145 0.000000 0.080183
0.415632 0.000000 0.456085
0.403712 0.000000 0.004343
0.033669 0.000000 0.289493
0.439902 0.000000 0.279089
0.466024 0.000000 0.235155
0.214798 0.000000 0.146733
0.283853 0.000000 0.146070
0.215929 0.000000 0.295039
0.246924 0.000000 0.239959
0.360925 0.000000 0.099321
0.198597 0.000000 0.159830
0.473550 0.000000 0.106829
0.384719 0.000000 0.317299
0.282983 0.000000 0.087006
0.399917 0.000000 0.163763
0.263668 0.000000 0.320318
0.093337 0.000000 0.483900
0.111583 0.000000 0.077107
0.188078 0.000000 0.464660
0.013872 0.000000 0.218944
0.315438 0.000000 0.451615
0.037574 0.000000 0.495777
0.431325 0.000000 0.187992
0.365022 0.000000 0.355839
0.148596 0.000000 0.365358
0.481961 0.000000 0.052792
0.177125 0.000000 0.370716
0.050771 0.000000 0.111887
0.316628 0.000000 0.419926
0.351054 0.000000 0.190731
0.395524 0.000000 0.116183
0.131211 0.000000 0.079868
0.400065 0.000000 0.419610
0.200753 0.000000 0.238429
0.256315 0.000000 0.486962
0.425114 0.000000 0.227736
0.351539 0.000000 0.163031
0.008237 0.000000 0.393883
0.421144 0.000000 0.430494
0.291324 0.000000 0.136262
0.226687 0.000000 0.016747
0.370952 0.000000 0.043321
0.144122 0.000000 0.347220
0.083363 0.000000 0.163145
0.322176 0.000000 0.486560
0.112282 0.000000 0.188038
0.461465 0.000000 0.423885
0.469846 0.000000 0.158678
0.123917 0.000000 0.222161
0.404081 0.000000 0.287395
0.226500 0.000000 0.061088
0.378678 0.000000 0.402198
0.042671 0.000000 0.327807
0.223181 0.000000 0.098106
0.245772 0.000000 0.411146
0.469849 0.000000 0.122896
0.367435 0.000000 0.107066
0.387071 0.000000 0.206039
0.421935 0.000000 0.367058
0.417624 0.000000 0.201987
0.384988 0.000000 0.260099
0.184645 0.000000 0.286542
0.109414 0.000000 0.464303
0.038614 0.000000 0.245901
0.345671 0.000000 0.119402
0.221180 0.000000 0.050584
0.480648 0.000000 0.378161
0.099472 0.000000 0.421732
0.025188 0.000000 0.481679
0.208456 0.000000 0.401297
0.095702 0.000000 0.383283
0.105915 0.000000 0.100797
0.016758 0.000000 0.292362
0.346880 0.000000 0.288690
0.244389 0.000000 0.263527
0.117892 0.000000 0.015573
0.474961 0.000000 0.027736
0.175952 0.000000 0.261571
0.311467 0.000000 0.458319
0.295827 0.000000 0.079800
0.242818 0.000000 0.445790
0.305785 0.000000 0.346774
0.202843 0.000000 0.364188
0.215899 0.000000 0.204771
0.110456 0.000000 0.260015
0.274756 0.000000 0.010844
0.060017 0.000000 0.172005
0.311672 0.000000 0.320810
0.194471 0.000000 0.410294
0.049962 0.000000 0.016269
0.330589 0.000000 0.472683
0.114510 0.000000 0.166891
0.228431 0.000000 0.223652
0.214556 0.000000 0.360343
0.467345 0.000000 0.205414
0.155214 0.000000 0.333119
0.080335 0.000000 0.393029
0.393953 0.000000 0.496411
0.159577 0.000000 0.186157
0.281531 0.000000 0.415643
0.414262 0.000000 0.462168
0.474407 0.000000 0.388193
0.306239 0.000000 0.359882
0.175238 0.000000 0.069603
0.454124 0.000000 0.257360
0.211848 0.000000 0.355383
0.472222 0.000000 0.491548
0.079553 0.000000 0.420380
0.438948 0.000000 0.033533
0.005518 0.000000 0.282328
0.221339 0.000000 0.248441
0.028239 0.000000 0.265823
0.027341 0.000000 0.062915
0.397544 0.000000 0.055998
0.142948 0.000000 0.082511
0.023516 0.000000 0.272526
0.204769 0.000000 0.052593
0.286383 0.000000 0.053565
0.367537 0.000000 0.485306
0.352273 0.000000 0.050890
0.147750 0.000000 0.479157
0.234267 0.000000 0.060670
0.128086 0.000000 0.084706
0.116043 0.000000 0.034617
0.427447 0.000000 0.256251
0.070811 0.000000 0.414090
0.054613 0.000000 0.496009
0.167798 0.000000 0.375002
0.389884 0.000000 0.487407
0.018875 0.000000 0.473002
0.421884 0.000000 0.054804
0.027190 0.000000 0.153869
0.382703 0.000000 0.136188
0.025121 0.000000 0.077237
0.067756 0.000000 0.394050
0.444946 0.000000 0.250832
0.134686 0.000000 0.171156
0.417639 0.000000 0.212092
0.272840 0.000000 0.098637
0.196801 0.000000 0.313942
0.459782 0.000000 0.457553
0.479835 0.000000 0.109181
0.228855 0.000000 0.219089
0.402707 0.000000 0.433501
0.378543 0.000000 0.084720
0.447698 0.000000 0.107220
0.265985 0.000000 0.101367
0.155844 0.000000 0.443197
0.162420 0.000000 0.094575
0.042223 0.000000 0.201851
0.438411 0.000000 0.371050
0.142213 0.000000 0.189757
0.464891 0.000000 0.100889
0.477527 0.000000 0.133256
0.383586 0.000000 0.306392
0.090684 0.000000 0.218067
0.329585 0.000000 0.436792
0.087083 0.000000 0.184777
0.323008 0.000000 0.023562
0.405994 0.000000 0.245699
0.411034 0.000000 0.410814
0.085449 0.000000 0.073092
0.489966 0.000000 0.249486
0.388655 0.000000 0.071469
0.390961 0.000000 0.129340
0.028293 0.000000 0.482534
0.334785 0.000000 0.184108
0.441645 0.000000 0.294605
0.453616 0.000000 0.236376
0.318084 0.000000 0.344641
0.166208 0.000000 0.264509
0.153658 0.000000 0.420955
0.452194 0.000000 0.021527
0.311605 0.000000 0.452900
0.406692 0.000000 0.276128
0.330397 0.000000 0.082566
0.180002 0.000000 0.392521
0.052388 0.000000 0.436069
0.207823 0.000000 0.136807
0.434192 0.000000 0.201697
0.329947 0.000000 0.440716
0.115624 0.000000 0.031067
0.377198 0.000000 0.407727
0.487395 0.000000 0.436316
0.490043 0.000000 0.474643
0.291694 0.000000 0.351865
0.122518 0.000000 0.363739
0.293133 0.000000 0.092156
0.492125 0.000000 0.417654
0.100855 0.000000 0.387687
0.214876 0.000000 0.017864
0.129193 0.000000 0.490079
0.339275 0.000000 0.013341
0.471875 0.000000 0.230557
0.225509 0.000000 0.001161
0.019992 0.000000 0.220843
0.113157 0.000000 0.417767
0.057997 0.000000 0.137570
0.409921 0.000000 0.431555
0.201870 0.000000 0.482020
0.377726 0.000000 0.023904
0.036092 0.000000 0.211921
0.435509 0.000000 0.095322
0.183312 0.000000 0.264743
0.306557 0.000000 0.182938
0.060930 0.000000 0.413075
0.222879 0.000000 0.043520
0.467675 0.000000 0.193334
0.352223 0.000000 0.285395
0.023918 0.000000 0.334219
0.104899 0.000000 0.322285
0.405961 0.000000 0.324489
0.069683 0.000000 0.461719
0.221055 0.000000 0.153530
0.370175 0.000000 0.007071
0.457733 0.000000 0.274513
0.244894 0.000000 0.426590
0.251354 0.000000 0.279716
0.020050 0.000000 0.447867
0.175532 0.000000 0.004797
0.257304 0.000000 0.496639
0.270206 0.000000 0.397292
0.326863 0.000000 0.354381
0.166843 0.000000 0.212465
0.225009 0.000000 0.402801
0.217784 0.000000 0.313347
0.023988 0.000000 0.336402
0.408783 0.000000 0.186276
0.253120 0.000000 0.218268
0.414644 0.000000 0.198070
0.371900 0.000000 0.190228
0.181640 0.000000 0.355039
0.313662 0.000000 0.316974
0.165030 0.000000 0.426675
0.348059 0.000000 0.408263
0.410429 0.000000 0.197298
0.359184 0.000000 0.453315
0.204795 0.000000 0.373757
0.310002 0.000000 0.055747
0.182800 0.000000 0.146288
0.193280 0.000000 0.226538
0.213699 0.000000 0.046077
0.462810 0.000000 0.486047
0.017084 0.000000 0.269373
0.033698 0.000000 0.396497
0.036833 0.000000 0.035607
0.059779 0.000000 0.099696
0.205068 0.000000 0.087513
0.016879 0.000000 0.452239
0.049188 0.000000 0.481095
0.438128 0.000000 0.413043
0.200064 0.000000 0.404498
0.063017 0.000000 0.460842
0.422950 0.000000 0.330431
0.436936 0.000000 0.331222
0.013338 0.000000 0.239033
0.264167 0.000000 0.215142
0.070113 0.000000 0.324903
0.418071 0.000000 0.362340
0.364513 0.000000 0.458028
0.477074 0.000000 0.236383
0.243011 0.000000 0.347463
0.356034 0.000000 0.335376
0.138765 0.000000 0.165688
0.044191 0.000000 0.074041
0.146101 0.000000 0.428846
0.230398 0.000000 0.365411
0.393105 0.000000 0.108588
0.276098 0.000000 0.129824
0.268822 0.000000 0.163213
0.293263 0.000000 0.227476
0.274964 0.000000 0.325622
0.445368 0.000000 0.462472
0.037001 0.000000 0.245718
0.275504 0.000000 0.098866
0.150643 0.000000 0.063564
0.411768 0.000000 0.146480
0.164386 0.000000 0.255591
0.206679 0.000000 0.207549
0.267788 0.000000 0.019059
0.388099 0.000000 0.318709
0.469607 0.000000 0.184548
0.187027 0.000000 0.145964
0.386854 0.000000 0.414073
0.060186 0.000000 0.442842
0.032058 0.000000 0.093020
0.053541 0.000000 0.453278
0.335456 0.000000 0.490035
0.454717 0.000000 0.131578
0.482514 0.000000 0.275599
0.146614 0.000000 0.136925
0.377768 0.000000 0.122371
0.400014 0.000000 0.028946
0.215910 0.000000 0.424452
0.373949 0.000000 0.185201
0.219038 0.000000 0.445772
0.051169 0.000000 0.236014
0.443174 0.000000 0.125893
0.103755 0.000000 0.222367
0.264112 0.000000 0.427758
0.362546 0.000000 0.276471
0.056535 0.000000 0.087482
0.198544 0.000000 0.016383
0.350081 0.000000 0.329214
0.336143 0.000000 0.208192
0.369338 0.000000 0.311156
0.483233 0.000000 0.409104
0.392830 0.000000 0.412140
0.249197 0.000000 0.052962
0.240082 0.000000 0.255707
0.222720 0.000000 0.063417
0.030813 0.000000 0.240398
0.209590 0.000000 0.194819
0.179433 0.000000 0.494551
0.058518 0.000000 0.123276
0.188429 0.000000 0.048445
0.089673 0.000000 0.109734
0.016088 0.000000 0.207692
0.287797 0.000000 0.026931
0.007769 0.000000 0.312204
0.093934 0.000000 0.417213
0.324801 0.000000 0.467265
0.381014 0.000000 0.249349
0.087948 0.000000 0.478024
0.224588 0.000000 0.389193
0.016619 0.000000 0.418314
0.486819 0.000000 0.289106
0.321770 0.000000 0.147844
0.130945 0.000000 0.382061
0.454964 0.000000 0.247063
0.327960 0.000000 0.238044
0.284883 0.000000 0.283539
0.169633 0.000000 0.271145
0.325490 0.000000 0.438150
0.403509 0.000000 0.264633
0.125518 0.000000 0.420814
0.079478 0.000000 0.003784
0.089890 0.000000 0.322713
0.021750 0.000000 0.285154
0.114021 0.000000 0.223747
0.383143 0.000000 0.458599
0.274692 0.000000 0.213423
0.098490 0.000000 0.380925
0.004034 0.000000 0.110123
0.167786 0.000000 0.154655
0.389537 0.000000 0.023991
0.240502 0.000000 0.266886
0.214647 0.000000 0.313740
0.297832 0.000000 0.439960
0.247450 0.000000 0.176745
0.215534 0.000000 0.429335
0.476414 0.000000 0.048916
0.420563 0.000000 0.227979
0.133286 0.000000 0.244945
0.141740 0.000000 0.020505
0.035369 0.000000 0.100819
0.497669 0.000000 0.393183
0.036210 0.000000 0.273480
0.168671 0.000000 0.492332
0.441394 0.000000 0.139597
0.111675 0.000000 0.485093
0.209789 0.000000 0.300916
0.051714 0.000000 0.321215
0.416492 0.000000 0.326788
0.057592 0.000000 0.199136
0.469442 0.000000 0.490290
0.170013 0.000000 0.363978
0.153545 0.000000 0.399939
0.401242 0.000000 0.183713
0.001323 0.000000 0.488759
0.119574 0.000000 0.447372
0.158245 0.000000 0.462287
0.007721 0.000000 0.363825
0.192804 0.000000 0.148688
0.142328 0.000000 0.363365
0.061851 0.000000 0.472400
0.323638 0.000000 0.347068
0.193256 0.000000 0.485681
0.281519 0.000000 0.074518
0.276340 0.000000 0.272539
0.223814 0.000000 0.026286
0.198137 0.000000 0.262588
0.060323 0.000000 0.166349
0.420179 0.000000 0.283303
0.439851 0.000000 0.146625
0.207640 0.000000 0.149477
0.012882 0.000000 0.027966
0.095413 0.000000 0.208888
0.102770 0.000000 0.399032
0.281986 0.000000 0.328198
0.039235 0.000000 0.275062
0.188513 0.000000 0.087759
0.160245 0.000000 0.160988
0.114161 0.000000 0.221016
0.367719 0.000000 0.199568
0.055690 0.000000 0.069136
0.475939 0.000000 0.336950
0.156356 0.000000 0.043244
0.125386 0.000000 0.321403
0.323740 0.000000 0.323599
0.012035 0.000000 0.136436
0.067790 0.000000 0.081870
0.406602 0.000000 0.259972
0.396196 0.000000 0.083782
0.368801 0.000000 0.490486
0.398383 0.000000 0.453548
0.265074 0.000000 0.452617
0.392881 0.000000 0.059427
0.187770 0.000000 0.301885
0.043033 0.000000 0.386284
0.331281 0.000000 0.452418
0.187077 0.000000 0.260876
0.206422 0.000000 0.154224
0.115587 0.000000 0.014990
0.134150 0.000000 0.394497
0.446377 0.000000 0.233541
0.417420 0.000000 0.281578
0.433764 0.000000 0.138091
0.264108 0.000000 0.163816
0.387409 0.000000 0.379867
0.311290 0.000000 0.342875
0.394435 0.000000 0.141387
0.344676 0.000000 0.068526
0.260806 0.000000 0.117834
0.407319 0.000000 0.484115
0.095706 0.000000 0.086952
0.102367 0.000000 0.499234
0.084936 0.000000 0.039501
0.166131 0.000000 0.147051
0.354937 0.000000 0.435717
0.106202 0.000000 0.474028
0.465986 0.000000 0.085734
0.068859 0.000000 0.385261
0.434295 0.000000 0.219429
0.473738 0.000000 0.368039
0.441969 0.000000 0.039743
0.442078 0.000000 0.090748
0.283356 0.000000 0.294575
0.337257 0.000000 0.440914
0.297323 0.000000 0.066371
0.324449 0.000000 0.224010
0.269334 0.000000 0.364704
0.342153 0.000000 0.074473
0.411448 0.000000 0.261550
0.069470 0.000000 0.305912
0.306692 0.000000 0.411697
0.182822 0.000000 0.260231
0.386707 0.000000 0.497254
0.088932 0.000000 0.495054
0.074511 0.000000 0.114186
0.013549 0.000000 0.312827
0.409767 0.000000 0.068716
0.326425 0.000000 0.364167
0.411562 0.000000 0.037016
0.155511 0.000000 0.103496
0.119975 0.000000 0.348209
0.008942 0.000000 0.160178
0.405412 0.000000 0.367420
0.122209 0.000000 0.312714
0.455779 0.000000 0.141363
0.326022 0.000000 0.131589
0.235688 0.000000 0.497651
0.199589 0.000000 0.031289
0.442536 0.000000 0.057973
0.390925 0.000000 0.230382
0.477249 0.000000 0.345884
0.346660 0.000000 0.184325
0.175245 0.000000 0.118034
0.422331 0.000000 0.141529
0.028647 0.000000 0.117123
0.449450 0.000000 0.217993
0.439572 0.000000 0.481819
0.007363 0.000000 0.494273
0.017981 0.000000 0.473195
0.105384 0.000000 0.128566
0.101030 0.000000 0.152828
0.041466 0.000000 0.489578
0.237258 0.000000 0.336281
0.005592 0.000000 0.170501
0.222616 0.000000 0.051123
0.181248 0.000000 0.201300
0.352546 0.000000 0.210741
0.336051 0.000000 0.452894
0.189796 0.000000 0.465834
0.417511 0.000000 0.459182
0.383930 0.000000 0.317581
0.451414 0.000000 0.250751
0.075984 0.000000 0.313562
0.057950 0.000000 0.167191
0.478940 0.000000 0.119266
0.109291 0.000000 0.094671
0.456980 0.000000 0.292932
0.484414 0.000000 0.007033
0.155052 0.000000 0.390349
0.122045 0.000000 0.045675
0.132059 0.000000 0.239932
0.087269 0.000000 0.227871
0.085450 0.000000 0.373236
0.384924 0.000000 0.046611
0.418067 0.000000 0.235581
0.320862 0.000000 0.498225
0.250356 0.000000 0.057768
0.328710 0.000000 0.480011
0.470542 0.000000 0.000252
0.198323 0.000000 0.023315
0.208432 0.000000 0.179774
0.112238 0.000000 0.369056
0.434177 0.000000 0.423081
0.257635 0.000000 0.007309
0.140441 0.000000 0.252746
0.359895 0.000000 0.328153
0.086003 0.000000 0.263823
0.493776 0.000000 0.181032
0.408841 0.000000 0.130924
0.486311 0.000000 0.190116
0.485954 0.000000 0.255465
0.107096 0.000000 0.140454
0.436643 0.000000 0.227778
0.073955 0.000000 0.452128
0.362402 0.000000 0.356761
0.220616 0.000000 0.428311
0.457202 0.000000 0.434199
0.410073 0.000000 0.392733
0.085003 0.000000 0.029327
0.299846 0.000000 0.143062
0.138803 0.000000 0.430909
0.040824 0.000000 0.006197
0.182352 0.000000 0.240592
0.387782 0.000000 0.134144
0.443500 0.000000 0.283105
0.373815 0.000000 0.063564
0.055725 0.000000 0.063363
0.337152 0.000000 0.010871
0.340837 0.000000 0.040878
0.357666 0.000000 0.199035
0.402998 0.000000 0.231262
0.207614 0.000000 0.128077
0.326390 0.000000 0.026254
0.002720 0.000000 0.006664
0.023285 0.000000 0.482277
0.481372 0.000000 0.434036
0.188767 0.000000 0.142903
0.134570 0.000000 0.341170
0.442995 0.000000 0.083569
0.423327 0.000000 0.461582
0.052601 0.000000 0.046112
0.015457 0.000000 0.225946
0.014458 0.000000 0.250864
0.148394 0.000000 0.069574
0.324253 0.000000 0.429069
0.447842 0.000000 0.326590
0.427307 0.000000 0.455037
0.231244 0.000000 0.465144
0.323932 0.000000 0.316962
0.461425 0.000000 0.151699
0.248714 0.000000 0.341397
0.167020 0.000000 0.097502
0.494767 0.000000 0.146560
0.292092 0.000000 0.183826
0.118227 0.000000 0.282048
0.190186 0.000000 0.003063
0.338735 0.000000 0.141292
0.300664 0.000000 0.312024
0.101390 0.000000 0.136935
0.373637 0.000000 0.018535
0.191368 0.000000 0.490877
0.327122 0.000000 0.356926
0.178423 0.000000 0.437807
0.105983 0.000000 0.263187
0.234443 0.000000 0.461683
0.313608 0.000000 0.474980
0.248848 0.000000 0.254296
0.426022 0.000000 0.265577
0.289896 0.000000 0.168455
0.405699 0.000000 0.368255
0.251188 0.000000 0.476739
0.006289 0.000000 0.430542
0.303486 0.000000 0.166102
0.018488 0.000000 0.090872
0.036644 0.000000 0.006800
0.002774 0.000000 0.309733
0.491234 0.000000 0.101431
0.000690 0.000000 0.037507
0.044179 0.000000 0.177196
0.123540 0.000000 0.314471
0.293056 0.000000 0.168766
0.126164 0.000000 0.438481
0.079875 0.000000 0.002926
0.360142 0.000000 0.344228
0.302621 0.000000 0.149894
0.484847 0.000000 0.155651
0.494418 0.000000 0.159574
0.060669 0.000000 0.444119
0.118256 0.000000 0.467561
0.202611 0.000000 0.120332
0.122874 0.000000 0.066338
0.456338 0.000000 0.376545
0.437754 0.000000 0.411634
0.496200 0.000000 0.136314
0.141529 0.000000 0.445582
0.227137 0.000000 0.349563
0.191188 0.000000 0.003062
0.213889 0.000000 0.335011
0.497371 0.000000 0.394620
0.254818 0.000000 0.263558
0.102771 0.000000 0.390187
0.473330 0.000000 0.491918
0.293049 0.000000 0.202001
0.474025 0.000000 0.324981
0.256939 0.000000 0.303151
0.413471 0.000000 0.056165
0.208950 0.000000 0.284188
0.450130 0.000000 0.049527
0.361440 0.000000 0.028670
0.430124 0.000000 0.066118
0.029602 0.000000 0.405213
0.079698 0.000000 0.164513
0.175949 0.000000 0.274998
0.054702 0.000000 0.105733
0.381319 0.000000 0.090600
0.044479 0.000000 0.412704
0.232788 0.000000 0.281128
0.099144 0.000000 0.222728
0.140026 0.000000 0.312591
0.193443 0.000000 0.379824
0.272844 0.000000 0.246022
0.088443 0.000000 0.328513
0.236225 0.000000 0.487377
0.057745 0.000000 0.025694
0.047227 0.000000 0.258756
0.204590 0.000000 0.399502
0.091671 0.000000 0.116339
0.017163 0.000000 0.306149
0.316359 0.000000 0.375671
0.234502 0.000000 0.417219
0.431545 0.000000 0.417102
0.470809 0.000000 0.466089
0.016235 0.000000 0.442434
0.197330 0.000000 0.495327
0.072453 0.000000 0.398191
0.086081 0.000000 0.325133
0.061420 0.000000 0.097564
0.220430 0.000000 0.366705
0.067784 0.000000 0.142195
0.059714 0.000000 0.444151
0.143770 0.000000 0.405169
0.075148 0.000000 0.052745
0.408058 0.000000 0.114057
0.225101 0.000000 0.189645
0.246134 0.000000 0.110158
0.304688 0.000000 0.172324
0.127656 0.000000 0.170938
0.090371 0.000000 0.048622
0.163762 0.000000 0.478847
0.387300 0.000000 0.193916
0.003199 0.000000 0.479261
0.205347 0.000000 0.271028
0.419625 0.000000 0.416739
0.406997 0.000000 0.189954
0.089345 0.000000 0.498046
0.043848 0.000000 0.413978
0.356110 0.000000 0.039444
0.362374 0.000000 0.058144
0.063369 0.000000 0.212590
0.187559 0.000000 0.292672
0.383694 0.000000 0.498241
0.267911 0.000000 0.202068
0.495951 0.000000 0.261169
0.387140 0.000000 0.432757
0.092854 0.000000 0.453356
0.237816 0.000000 0.378886
0.123568 0.000000 0.345701
0.030285 0.000000 0.403993
0.252955 0.000000 0.494301
0.290050 0.000000 0.325152
0.142337 0.000000 0.060701
0.305172 0.000000 0.064596
0.054883 0.000000 0.198478
0.215821 0.000000 0.244949
0.194621 0.000000 0.484693
0.492474 0.000000 0.163420
0.192619 0.000000 0.425340
0.390889 0.000000 0.429719
0.485295 0.000000 0.199185
0.218795 0.000000 0.068471
0.009666 0.000000 0.090542
0.086615 0.000000 0.239498
0.078554 0.000000 0.490046
0.042244 0.000000 0.277234
0.367384 0.000000 0.017696
0.062008 0.000000 0.120715
0.179675 0.000000 0.264862
0.265739 0.000000 0.316531
0.038794 0.000000 0.078829
0.034533 0.000000 0.447915
0.386049 0.000000 0.427656
0.497321 0.000000 0.357723
0.225845 0.000000 0.484261
0.020017 0.000000 0.180517
0.277894 0.000000 0.254890
0.175266 0.000000 0.418144
0.049021 0.000000 0.226792
0.145301 0.000000 0.024463
0.191578 0.000000 0.306806
0.444423 0.000000 0.448737
0.425171 0.000000 0.168068
0.339132 0.000000 0.453216
0.234550 0.000000 0.425183
0.124806 0.000000 0.073906
0.270815 0.000000 0.118922
0.155633 0.000000 0.472323
0.283125 0.000000 0.275684
0.329000 0.000000 0.453079
0.313654 0.000000 0.347529
0.436057 0.000000 0.316500
0.077249 0.000000 0.452909
0.290088 0.000000 0.402646
0.342255 0.000000 0.349751
0.059981 0.000000 0.040015
0.465492 0.000000 0.014700
0.279521 0.000000 0.160431
0.174781 0.000000 0.394482
0.162246 0.000000 0.393464
0.288147 0.000000 0.233993
0.306658 0.000000 0.113855
0.060023 0.000000 0.067277
0.121547 0.000000 0.063572
0.278199 0.000000 0.345495
0.378301 0.000000 0.012870
0.211810 0.000000 0.091659
0.367786 0.000000 0.119751
0.271041 0.000000 0.057935
0.221827 0.000000 0.209073
0.484451 0.000000 0.235878
0.136355 0.000000 0.301451
0.290535 0.000000 0.316905
0.403868 0.000000 0.322813
0.098527 0.000000 0.345690
0.407530 0.000000 0.179744
0.489209 0.000000 0.151204
0.451219 0.000000 0.030562
0.089371 0.000000 0.138171
0.348175 0.000000 0.054659
0.409019 0.000000 0.405810
0.291226 0.000000 0.468932
0.046917 0.000000 0.435280
0.413541 0.000000 0.114455
0.236155 0.000000 0.279077
0.139954 0.000000 0.167728
0.038386 0.000000 0.325675
0.229537 0.000000 0.113057
0.302040 0.000000 0.244171
0.026919 0.000000 0.256295
0.480684 0.000000 0.429213
0.424502 0.000000 0.411636
0.479213 0.000000 0.443668
0.444508 0.000000 0.477662
0.131299 0.000000 0.280724
0.479604 0.000000 0.086796
0.144880 0.000000 0.497545
0.428623 0.000000 0.059349
0.390754 0.000000 0.049521
0.297767 0.000000 0.186849
0.112192 0.000000 0.282241
0.064681 0.000000 0.395856
0.310459 0.000000 0.244400
0.187165 0.000000 0.409184
0.484461 0.000000 0.404937
0.315983 0.000000 0.235078
0.163079 0.000000 0.044219
0.449328 0.000000 0.404943
0.159142 0.000000 0.363855
0.342971 0.000000 0.282711
0.289709 0.000000 0.032277
0.107167 0.000000 0.282760
0.414216 0.000000 0.139335
0.180546 0.000000 0.158723
0.092778 0.000000 0.000416
0.317321 0.000000 0.141144
0.124584 0.000000 0.037015
0.308950 0.000000 0.337268
0.191714 0.000000 0.367387
0.399763 0.000000 0.466443
0.361916 0.000000 0.143827
0.050779 0.000000 0.425152
0.448745 0.000000 0.160720
0.075968 0.000000 0.473843
0.092232 0.000000 0.350160
0.193710 0.000000 0.483694
0.427546 0.000000 0.453561
0.344180 0.000000 0.414021
0.393642 0.000000 0.155063
0.300019 0.000000 0.163792
0.306314 0.000000 0.053606
0.381289 0.000000 0.454473
0.069156 0.000000 0.197460
0.195801 0.000000 0.493596
0.370074 0.000000 0.010660
0.393277 0.000000 0.384096
0.082598 0.000000 0.285208
0.222986 0.000000 0.278835
0.216196 0.000000 0.227673
0.167941 0.000000 0.444792
0.066621 0.000000 0.134752
0.299647 0.000000 0.185743
0.176811 0.000000 0.208968
0.486629 0.000000 0.064350
0.171030 0.000000 0.187672
0.421422 0.000000 0.469925
0.091901 0.000000 0.414717
0.021868 0.000000 0.221234
0.078363 0.000000 0.148969
0.315459 0.000000 0.167445
0.012212 0.000000 0.037090
0.155193 0.000000 0.410331
0.445467 0.000000 0.069435
0.406625 0.000000 0.256699
0.204091 0.000000 0.283849
0.385133 0.000000 0.111717
0.304079 0.000000 0.178544
0.483875 0.000000 0.040532
0.326194 0.000000 0.341980
0.473487 0.000000 0.245279
0.024959 0.000000 0.320637
0.348071 0.000000 0.448642
0.155041 0.000000 0.043158
0.256619 0.000000 0.403512
0.025134 0.000000 0.089835
0.241347 0.000000 0.107728
0.489124 0.000000 0.248613
0.348927 0.000000 0.250178
0.311190 0.000000 0.342610
0.303485 0.000000 0.039492
0.305837 0.000000 0.312573
0.147929 0.000000 0.111869
0.276029 0.000000 0.084749
0.282049 0.000000 0.454085
0.262482 0.000000 0.237889
0.399701 0.000000 0.339505
0.077953 0.000000 0.068475
0.199268 0.000000 0.191824
0.022587 0.000000 0.432290
0.193874 0.000000 0.320376
0.164079 0.000000 0.036249
0.322022 0.000000 0.253423
0.342144 0.000000 0.342527
0.422299 0.000000 0.257319
0.349897 0.000000 0.481793
0.149648 0.000000 0.345174
0.008839 0.000000 0.082825
0.245799 0.000000 0.001163
0.002049 0.000000 0.081393
0.172399 0.000000 0.015609
0.397310 0.000000 0.385748
0.467709 0.000000 0.327663
0.425420 0.000000 0.206233
0.427084 0.000000 0.116381
0.389550 0.000000 0.276477
0.378752 0.000000 0.148065
0.105823 0.000000 0.206856
0.302491 0.000000 0.112191
0.452605 0.000000 0.391364
0.071720 0.000000 0.340494
0.126791 0.000000 0.459276
0.108424 0.000000 0.418466
0.175525 0.000000 0.204239
0.184110 0.000000 0.119310
0.042000 0.000000 0.024582
0.410772 0.000000 0.068470
0.303889 0.000000 0.365281
0.265948 0.000000 0.384878
0.248278 0.000000 0.292163
0.065191 0.000000 0.283775
0.392019 0.000000 0.102312
0.321444 0.000000 0.206892
0.277767 0.000000 0.005293
0.399686 0.000000 0.223999
0.455914 0.000000 0.371960
0.331509 0.000000 0.013289
0.486231 0.000000 0.489371
0.417803 0.000000 0.065189
0.255587 0.000000 0.427271
0.309687 0.000000 0.156169
0.117164 0.000000 0.254891
0.416098 0.000000 0.387418
0.189847 0.000000 0.391533
0.086072 0.000000 0.210774
0.341117 0.000000 0.234488
0.291544 0.000000 0.103498
0.261931 0.000000 0.065038
0.159148 0.000000 0.233315
0.451797 0.000000 0.285611
0.167431 0.000000 0.213296
0.061418 0.000000 0.476713
0.300412 0.000000 0.418801
0.294998 0.000000 0.228053
0.287337 0.000000 0.286318
0.473061 0.000000 0.391975
0.441461 0.000000 0.206842
0.270915 0.000000 0.410564
0.104802 0.000000 0.266096
0.003207 0.000000 0.158661
0.135099 0.000000 0.415541
0.326778 0.000000 0.211766
0.221463 0.000000 0.470316
0.455749 0.000000 0.395326
0.479080 0.000000 0.342094
0.498389 0.000000 0.175011
0.243144 0.000000 0.351017
0.306682 0.000000 0.102224
0.051200 0.000000 0.461331
0.214524 0.000000 0.360121
0.472127 0.000000 0.100410
0.406266 0.000000 0.088656
0.407981 0.000000 0.326391
0.280815 0.000000 0.436312
0.414743 0.000000 0.421226
0.449929 0.000000 0.160261
0.183648 0.000000 0.116715
0.090895 0.000000 0.386827
0.322570 0.000000 0.156007
0.034380 0.000000 0.235987
0.355633 0.000000 0.372996
0.261355 0.000000 0.325923
0.315740 0.000000 0.128875
0.381229 0.000000 0.278021
0.330203 0.000000 0.420000
0.451816 0.000000 0.441058
0.212451 0.000000 0.050825
0.375249 0.000000 0.421958
0.217787 0.000000 0.366863
0.104305 0.000000 0.021764
0.035458 0.000000 0.374029
0.056969 0.000000 0.028727
0.255309 0.000000 0.381125
0.283849 0.000000 0.354959
0.047496 0.000000 0.401952
0.408342 0.000000 0.049072
0.148668 0.000000 0.365716
0.442402 0.000000 0.117835
0.332663 0.000000 0.083862
0.395483 0.000000 0.256994
0.458449 0.000000 0.444922
0.090575 0.000000 0.048987
0.461964 0.000000 0.349998
0.377609 0.000000 0.396448
0.138869 0.000000 0.240867
0.347258 0.000000 0.180024
0.074517 0.000000 0.048807
0.004663 0.000000 0.119240
0.206591 0.000000 0.195950
0.195932 0.000000 0.357054
0.173843 0.000000 0.086378
0.456350 0.000000 0.403408
0.441655 0.000000 0.267640
0.244863 0.000000 0.224957
0.312131 0.000000 0.368536
0.093752 0.000000 0.227961
0.146134 0.000000 0.026857
0.197420 0.000000 0.487797
0.175447 0.000000 0.486670
0.402192 0.000000 0.492593
0.012905 0.000000 0.231698
0.301144 0.000000 0.291982
0.191868 0.000000 0.439755
0.285188 0.000000 0.197466
0.172491 0.000000 0.475727
0.128621 0.000000 0.141670
0.393261 0.000000 0.108962
0.073757 0.000000 0.295803
0.006057 0.000000 0.064803
0.279499 0.000000 0.353304
0.016947 0.000000 0.210709
0.237595 0.000000 0.439956
0.419720 0.000000 0.258886
0.075944 0.000000 0.178203
0.155015 0.000000 0.246718
0.477119 0.000000 0.186241
0.470178 0.000000 0.101706
0.177164 0.000000 0.027349
0.123763 0.000000 0.072959
0.011440 0.000000 0.205480
0.323774 0.000000 0.107396
0.313263 0.000000 0.157172
0.344046 0.000000 0.113743
0.403935 0.000000 0.139717
0.007273 0.000000 0.349208
0.082683 0.000000 0.493017
0.262943 0.000000 0.114407
0.150530 0.000000 0.020145
0.440272 0.000000 0.063812
0.137644 0.000000 0.359727
0.319609 0.000000 0.288767
0.482103 0.000000 0.381356
0.233239 0.000000 0.180602
0.389942 0.000000 0.087043
0.471906 0.000000 0.378746
0.444520 0.000000 0.463003
0.028765 0.000000 0.185708
0.193102 0.000000 0.370099
0.306227 0.000000 0.003238
0.235844 0.000000 0.411669
0.076679 0.000000 0.067268
0.307616 0.000000 0.159111
0.454753 0.000000 0.256998
0.457157 0.000000 0.370672
0.020560 0.000000 0.269762
0.123825 0.000000 0.495329
0.475032 0.000000 0.237077
0.032430 0.000000 0.221856
0.402402 0.000000 0.443255
0.283715 0.000000 0.225411
0.285528 0.000000 0.397402
0.154946 0.000000 0.159234
0.361297 0.000000 0.231898
0.254879 0.000000 0.319761
0.257520 0.000000 0.471733
0.227709 0.000000 0.496850
0.046512 0.000000 0.171072
0.051328 0.000000 0.383467
0.472974 0.000000 0.135174
0.253075 0.000000 0.035895
0.342276 0.000000 0.224039
0.151160 0.000000 0.439344
0.183116 0.000000 0.297401
0.310694 0.000000 0.262927
0.322917 0.000000 0.160878
0.039376 0.000000 0.199524
0.098099 0.000000 0.336362
0.489190 0.000000 0.134222
0.468678 0.000000 0.077663
0.394701 0.000000 0.002405
0.214470 0.000000 0.442135
0.006849 0.000000 0.388249
0.451107 0.000000 0.216111
0.433217 0.000000 0.309201
0.461288 0.000000 0.192781
0.325025 0.000000 0.352493
0.148342 0.000000 0.241727
0.412063 0.000000 0.078609
0.252773 0.000000 0.452754
0.006608 0.000000 0.154761
0.430158 0.000000 0.170749
0.176276 0.000000 0.275375
0.081300 0.000000 0.295394
0.067719 0.000000 0.010268
0.278379 0.000000 0.462715
0.405792 0.000000 0.467051
0.380106 0.000000 0.371462
0.261476 0.000000 0.359779
0.257466 0.000000 0.461813
0.179394 0.000000 0.304753
0.011973 0.000000 0.439353
0.125022 0.000000 0.231184
0.414397 0.000000 0.447610
0.339360 0.000000 0.078347
0.042607 0.000000 0.156353
0.499164 0.000000 0.474313
0.454278 0.000000 0.255386
0.248421 0.000000 0.010985
0.130973 0.000000 0.455550
0.136721 0.000000 0.092546
0.085568 0.000000 0.482454
0.012289 0.000000 0.200879
0.208766 0.000000 0.069925
0.080988 0.000000 0.362313
0.224720 0.000000 0.257407
0.300425 0.000000 0.426083
0.353114 0.000000 0.128029
0.198807 0.000000 0.031505
0.150231 0.000000 0.007606
0.308822 0.000000 0.384062
0.384716 0.000000 0.242203
0.389133 0.000000 0.143736
0.051790 0.000000 0.249457
0.141562 0.000000 0.352116
0.222196 0.000000 0.051345
0.145703 0.000000 0.303505
0.068695 0.000000 0.242698
0.174079 0.000000 0.420585
0.167090 0.000000 0.246147
0.325336 0.000000 0.043660
0.110318 0.000000 0.483442
0.320434 0.000000 0.301512
0.393688 0.000000 0.204497
0.297525 0.000000 0.495744
0.295325 0.000000 0.104636
0.216238 0.000000 0.475876
0.477340 0.000000 0.141388
0.332713 0.000000 0.151887
0.144697 0.000000 0.192301
0.282497 0.000000 0.465876
0.358520 0.000000 0.408622
0.382616 0.000000 0.402806
0.221764 0.000000 0.141068
0.411150 0.000000 0.331963
0.396503 0.000000 0.400910
0.498539 0.000000 0.085222
0.483843 0.000000 0.281488
0.086765 0.000000 0.438556
0.289691 0.000000 0.065296
0.036457 0.000000 0.340868
0.183251 0.000000 0.456177
0.260541 0.000000 0.312419
0.498231 0.000000 0.298839
0.144127 0.000000 0.189956
0.162397 0.000000 0.134615
0.410800 0.000000 0.284148
0.331580 0.000000 0.333777
0.029988 0.000000 0.223098
0.401008 0.000000 0.423718
0.344900 0.000000 0.287811
0.041770 0.000000 0.114962
0.346369 0.000000 0.462159
0.035107 0.000000 0.043565
0.367847 0.000000 0.260850
0.295620 0.000000 0.001091
0.180393 0.000000 0.434688
0.182348 0.000000 0.071111
0.369799 0.000000 0.247642
0.107363 0.000000 0.277826
0.442921 0.000000 0.230596
0.162621 0.000000 0.016252
0.419068 0.000000 0.111524
0.439391 0.000000 0.149586
0.473877 0.000000 0.164221
0.235302 0.000000 0.163069
0.404121 0.000000 0.251960
0.248137 0.000000 0.321329
0.487591 0.000000 0.430784
0.467160 0.000000 0.405605
0.179773 0.000000 0.377753
0.042389 0.000000 0.439291
0.264258 0.000000 0.139792
0.436273 0.000000 0.020103
0.415457 0.000000 0.189672
0.341511 0.000000 0.143386
0.167126 0.000000 0.256509
0.161360 0.000000 0.375006
0.081445 0.000000 0.205945
0.377314 0.000000 0.154628
0.117441 0.000000 0.409036
0.150538 0.000000 0.166545
0.386031 0.000000 0.471461
0.233677 0.000000 0.139501
0.034956 0.000000 0.243037
0.349702 0.000000 0.089011
0.115238 0.000000 0.404166
0.056321 0.000000 0.489077
0.085361 0.000000 0.255738
0.300012 0.000000 0.096917
0.148570 0.000000 0.393580
0.072336 0.000000 0.379772
0.114443 0.000000 0.150226
0.063846 0.000000 0.167540
0.210448 0.000000 0.351783
0.005168 0.000000 0.143065
0.103759 0.000000 0.215934
0.004839 0.000000 0.486830
0.157842 0.000000 0.105156
0.214286 0.000000 0.162301
0.183092 0.000000 0.075286
0.047977 0.000000 0.279955
0.260969 0.000000 0.296285
0.196875 0.000000 0.070179
0.003349 0.000000 0.360114
0.420468 0.000000 0.197792
0.245114 0.000000 0.374878
0.159167 0.000000 0.417185
0.422051 0.000000 0.003392
0.232263 0.000000 0.482616
0.327399 0.000000 0.010509
0.082348 0.000000 0.456622
0.141462 0.000000 0.271330
0.169622 0.000000 0.335660
0.205493 0.000000 0.452997
0.241356 0.000000 0.326694
0.455943 0.000000 0.278105
0.033378 0.000000 0.076269
0.015665 0.000000 0.202430
0.365338 0.000000 0.198352
0.305632 0.000000 0.101565
0.382156 0.000000 0.181431
0.414422 0.000000 0.134612
0.273156 0.000000 0.471718
0.490087 0.000000 0.443960
0.021173 0.000000 0.204629
0.446843 0.000000 0.488614
0.198960 0.000000 0.150491
0.343985 0.000000 0.134251
0.059839 0.000000 0.360936
0.347044 0.000000 0.058044
0.472029 0.000000 0.237797
0.306256 0.000000 0.200551
0.439341 0.000000 0.236051
0.081841 0.000000 0.116608
0.440997 0.000000 0.242967
0.130688 0.000000 0.084996
0.061043 0.000000 0.381062
0.450673 0.000000 0.046529
0.298817 0.000000 0.412172
0.440568 0.000000 0.374695
0.355009 0.000000 0.202596
0.444715 0.000000 0.005472
0.416596 0.000000 0.194605
0.083735 0.000000 0.341008
0.144541 0.000000 0.385854
0.398737 0.000000 0.024146
0.245057 0.000000 0.257503
0.278797 0.000000 0.376289
0.053442 0.000000 0.426076
0.319033 0.000000 0.228518
0.430742 0.000000 0.494500
0.059283 0.000000 0.070935
0.257833 0.000000 0.142834
0.082970 0.000000 0.309643
0.036537 0.000000 0.255773
0.341026 0.000000 0.027189
0.175220 0.000000 0.412963
0.272436 0.000000 0.412730
0.105426 0.000000 0.420402
0.458224 0.000000 0.457638
0.422002 0.000000 0.134421
0.338355 0.000000 0.421885
0.207308 0.000000 0.416470
0.346740 0.000000 0.143483
0.488638 0.000000 0.177804
0.322262 0.000000 0.269830
0.039841 0.000000 0.332546
0.297514 0.000000 0.225739
0.280837 0.000000 0.435381
0.376681 0.000000 0.146275
0.282565 0.000000 0.373223
0.073093 0.000000 0.384295
0.208531 0.000000 0.151513
0.291534 0.000000 0.093603
0.333482 0.000000 0.030552
0.360033 0.000000 0.085914
0.383874 0.000000 0.414549
0.416281 0.000000 0.405280
0.351281 0.000000 0.445992
0.366597 0.000000 0.338343
0.484044 0.000000 0.263519
0.494177 0.000000 0.485660
0.157483 0.000000 0.136922
0.106967 0.000000 0.245899
0.491679 0.000000 0.051704
0.160670 0.000000 0.451747
0.275490 0.000000 0.244405
0.245395 0.000000 0.296197
0.250734 0.000000 0.113186
0.024123 0.000000 0.182758
0.306647 0.000000 0.031791
0.208711 0.000000 0.296953
0.219258 0.000000 0.239386
0.378675 0.000000 0.040764
0.421561 0.000000 0.032718
0.113420 0.000000 0.135538
0.449432 0.000000 0.412801
0.217880 0.000000 0.226453
0.062998 0.000000 0.244905
0.496493 0.000000 0.466611
0.189303 0.000000 0.326377
0.236249 0.000000 0.013937
0.451027 0.000000 0.404132
0.278868 0.000000 0.143893
0.474105 0.000000 0.207381
0.386344 0.000000 0.159795
0.228225 0.000000 0.397243
0.204815 0.000000 0.150771
0.101363 0.000000 0.006660
0.115205 0.000000 0.294561
0.112740 0.000000 0.043126
0.220487 0.000000 0.274553
0.185693 0.000000 0.209141
0.064984 0.000000 0.347405
0.149912 0.000000 0.126933
0.458250 0.000000 0.113654
0.493723 0.000000 0.404599
0.046531 0.000000 0.100677
0.380122 0.000000 0.413047
0.136803 0.000000 0.290925
0.035918 0.000000 0.354534
0.373662 0.000000 0.227321
0.368347 0.000000 0.105680
0.272998 0.000000 0.160116
0.333011 0.000000 0.190978
0.287504 0.000000 0.036543
0.046836 0.000000 0.037487
0.331539 0.000000 0.413774
0.465375 0.000000 0.363412
0.430517 0.000000 0.325498
0.202134 0.000000 0.222823
0.419327 0.000000 0.110024
0.090598 0.000000 0.396012
0.107501 0.000000 0.452856
0.093456 0.000000 0.490644
0.484220 0.000000 0.194916
0.403410 0.000000 0.076494
0.475036 0.000000 0.196307
0.099953 0.000000 0.424290
0.219433 0.000000 0.439722
0.367404 0.000000 0.119901
0.453319 0.000000 0.071375
0.283917 0.000000 0.386358
0.293801 0.000000 0.189389
0.074385 0.000000 0.123540
0.103401 0.000000 0.439251
0.199759 0.000000 0.172049
0.064098 0.000000 0.389946
